# .PCD v0.7 - Point Cloud Data file format
VERSION 0.7
FIELDS x y z rgb
SIZE 4 4 4 4
TYPE F F F U
COUNT 1 1 1 1
WIDTH 84
HEIGHT 1
VIEWPOINT 0 0 0 1 0 0 0
POINTS 84
DATA ascii
-0.14796703 -1.6726871 5.0494585 4291414473
-0.12374899 -1.6943396 5.140316 4282400832
-0.61496723 -1.5972584 4.9344616 4290098613
1.5678595 -1.6559601 5.3490038 4294111986
2.30496 -1.6224363 5.2802544 4278453252
-1.4938726 -1.6554567 5.4343286 4284966759
-0.50249249 -1.6850696 5.5819144 4282400832
1.3155003 -1.5842065 5.317976 4278519045
1.7521871 -1.5003625 5.1199274 4286940549
0.16755721 -1.3849916 4.7870684 4283979864
1.7617987 -1.4609818 5.1410508 4282795590
0.6088627 -1.4612989 5.2108712 4287598479
1.0017452 -1.3532283 5.0848579 4280492835
1.3356308 -1.2848295 5.0792356 4287335307
0.94585443 -1.2889444 5.1477461 4286940549
-2.3059318 -1.2807989 5.2257061 4292598747
0.0083986931 -1.1095419 4.6702614 4286545791
1.890501 -1.1563423 4.9042854 4285229931
0.89122766 -1.1353745 4.9665132 4290690750
-2.2174983 -1.1160073 5.1926517 4282335039
1.0719885 -1.0163599 4.8933082 4282203453
1.9154134 -0.95794833 4.7950392 4283519313
0.065874942 -0.81632435 4.5494213 4293519849
0.96004134 -0.80910963 4.898109 4280953386
-0.86340863 -0.80059773 4.8848071 4282269246
-2.0360487 -0.81003624 5.1323295 4281479730
-1.3135265 -0.79475802 5.084754 4290230199
-1.504974 -0.68179166 5.0908637 4294440951
1.8455585 -0.59358174 4.7451744 4291085508
0.51834577 -0.58001107 4.688139 4279505940
-1.1098241 -0.54116523 4.7874613 4285887861
-1.7812409 -0.52843946 5.0928941 4282466625
0.084763609 -0.43005851 4.6040273 4291217094
1.9469163 -0.43162683 4.6506143 4287993237
-0.016284339 -0.37379459 4.6068377 4294177779
-0.49975938 -0.36980182 4.6781578 4285558896
0.35794961 -0.27134132 4.6868734 4283585106
1.7125843 -0.22662747 4.6594048 4287137928
1.7496413 -0.22272845 4.6501117 4282466625
1.3761873 -0.21141168 4.6753774 4278913803
1.8039377 -0.21254885 4.6433768 4286677377
-0.25288752 -0.20757425 4.576684 4289901234
-1.8332283 -0.18237244 5.0797548 4279703319
-1.6541622 -0.086793356 5.0491362 4293454056
-1.3606836 -0.036627568 4.8024154 4278650631
-1.3455894 -0.012062769 4.8016782 4280690214
-1.3121487 0.0045345724 4.8174133 4294704123
-1.3104843 0.017450256 4.8054495 4288585374
-0.10253185 0.049533982 4.495163 4283190348
1.3987868 0.060878504 4.6505899 4284243036
1.6304978 0.077363864 4.598465 4286282619
0.89865148 0.10783783 4.4548926 4283190348
1.9777279 0.22181167 4.5452371 4282992969
1.8152214 0.25120756 4.5642595 4293717228
0.0071761608 0.31317618 4.4140759 4288716960
-0.24488834 0.32500899 4.4000902 4290888129
1.471705 0.35320038 4.5947247 4290164406
-1.09437 0.37967172 4.5066991 4290361785
-0.65032905 0.37899965 4.4409647 4279308561
-0.17335731 0.37695411 4.3814964 4286348412
0.17721508 0.37710235 4.3406253 4279637526
0.40614501 0.37678921 4.3015504 4290953922
2.0276091 0.39343178 4.4935532 4285295724
-1.0937564 0.45198435 4.5121169 4288190616
1.686693 0.46969292 4.5433488 4279637526
0.7680456 0.44903165 4.2535825 4282729797
0.15944147 0.45867804 4.317153 4288651167
-2.0208819 0.79719305 5.0123301 4281874488
0.84826297 0.74624211 4.1966581 4281940281
-0.11374854 0.62073004 3.3805463 4285493103
1.5612538 0.88009435 4.5282617 4294769916
-0.23538947 0.69021738 3.3964834 4281742902
0.85564959 0.93244398 4.1536827 4292532954
1.9701054 1.0240577 4.3620415 4282927176
0.23340262 0.8352679 3.4632912 4292269782
-0.43653274 0.8310352 3.4257014 4284308829
2.0523717 1.0541717 4.3349113 4293914607
0.81116909 1.0499499 4.1075935 4292664540
-0.54800391 0.93905038 3.3753688 4286414205
1.5918007 -0.80780476 4.7406316 4278519045
-2.052803 0.34791461 5.054841 4284243036
-0.17556511 0.44454452 4.3865719 4290559164
-0.46835181 0.64425874 3.4226525 4286874756
1.965461 1.0972335 4.3601561 4285295724
