# .PCD v0.7 - Point Cloud Data file format
VERSION 0.7
FIELDS x y z rgb
SIZE 4 4 4 4
TYPE F F F U
COUNT 1 1 1 1
WIDTH 84
HEIGHT 1
VIEWPOINT 0 0 0 1 0 0 0
POINTS 84
DATA ascii
-0.094226383 -1.0634192 3.2101889 4291414473
-0.079175182 -1.0811335 3.2799184 4282400832
-0.2530964 -0.6571362 2.0300844 4290098613
-0.95924008 1.0129222 -3.271934 4294111986
-0.74318898 0.52296913 -1.7020524 4278453252
-0.34197706 -0.37894529 1.2439376 4284966759
-0.2007031 -0.67273092 2.2284265 4282400832
-1.1375283 1.3696734 -4.5978613 4278519045
-0.83576626 0.71553808 -2.4417777 4286940549
0.19939868 -1.6488678 5.699091 4283979864
-0.83677757 0.69377685 -2.4413753 4282795590
3.5323703 -8.4784784 30.233444 4287598479
-1.5418475 2.0827408 -7.8260884 4280492835
-1.0255878 0.98647922 -3.8998353 4287335307
-1.8475584 2.517592 -10.054735 4286940549
-0.39368513 -0.21866742 0.8921687 4292598747
0.0076033031 -1.0102022 4.2520809 4286545791
-0.76793486 0.46966898 -1.991998 4285229931
-1.8301803 2.3315017 -10.198805 4290690750
-0.39102918 -0.19679467 0.91566098 4282335039
-1.2298392 1.1659878 -5.6137252 4282203453
-0.74856418 0.3743569 -1.87388 4283519313
0.07058832 -0.87492919 4.8760014 4293519849
-1.476297 1.2441719 -7.5318909 4280953386
-0.29820389 -0.2765075 1.6870737 4282269246
-0.38475841 -0.15307532 0.96987158 4281479730
-0.34003404 -0.20574006 1.3162888 4290230199
-0.35501325 -0.1608305 1.2008971 4294440951
-0.75532812 0.24292153 -1.9419924 4291085508
4.4707618 -5.0026598 40.435658 4279505940
-0.33302674 -0.16238871 1.4365761 4285887861
-0.37271807 -0.11057423 1.0656686 4282466625
0.09181983 -0.46589819 4.9876761 4291217094
-0.72568923 0.16087875 -1.7334365 4287993237
-0.01452567 -0.33330876 4.1078367 4294177779
-0.23848605 -0.17646973 2.2323916 4285558896
0.83352596 -0.63185632 10.913991 4283585106
-0.77097213 0.10201932 -2.0975506 4287137928
-0.76147246 0.096931212 -2.0237827 4282466625
-0.88286978 0.13562503 -2.9993932 4278913803
-0.74962074 0.088320598 -1.9295217 4286677377
-0.16112562 -0.13225439 2.9159851 4289901234
-0.37595367 -0.037400566 1.0417427 4279703319
-0.36644837 -0.019227542 1.1185405 4293454056
-0.35520914 -0.0095619066 1.2536796 4278650631
-0.35400456 -0.0031738768 1.2632492 4280690214
-0.35054663 0.0012112251 1.2869937 4294704123
-0.35090861 0.0046725827 1.2867558 4288585374
-0.082619756 0.039913375 3.6221507 4283190348
-0.86742389 -0.037753563 -2.8839409 4284243036
-0.78108692 -0.037061691 -2.2028809 4286282619
-1.2360579 -0.14832747 -6.1275082 4283190348
-0.70957738 -0.079583131 -1.6307542 4282992969
-0.73733473 -0.10203961 -1.8539795 4293717228
0.0072341939 0.31572381 4.4499874 4288716960
-0.1658456 0.22010502 2.9798656 4290888129
-0.82754511 -0.19860622 -2.5836265 4290164406
-0.34415233 0.11939728 1.4172453 4290361785
-0.28458801 0.16585244 1.9433929 4279308561
-0.13043053 0.28361252 3.2965484 4286348412
0.2823126 0.60074365 6.9148455 4279637526
2.4753048 2.2963922 26.216379 4290953922
-0.69751781 -0.13534459 -1.5458261 4285295724
-0.3437807 0.14206398 1.4182121 4288190616
-0.75982416 -0.21158807 -2.0466943 4279637526
-1.3661113 -0.79868591 -7.5657825 4282729797
0.24449548 0.7033599 6.6201396 4288651167
-0.38741261 0.15282567 0.96088731 4281874488
-1.1421188 -1.0047557 -5.6504664 4281940281
-0.14970163 0.81692713 4.4490519 4285493103
-0.78844517 -0.44445443 -2.2868071 4294769916
-0.23436466 0.68721217 3.3816955 4281742902
-1.1031935 -1.2022049 -5.3553643 4292532954
-0.69096982 -0.3591651 -1.5298865 4282927176
1.907096 6.8248434 28.298012 4292269782
-0.30955917 0.58931315 2.4292727 4284308829
-0.67878187 -0.34864673 -1.4336871 4293914607
-1.1436673 -1.4803241 -5.7912955 4292664540
-0.34143096 0.58506918 2.1030035 4286414205
-0.81533885 0.41375774 -2.4281688 4278519045
-0.38765615 0.065701 0.95456809 4284243036
-0.13140297 0.33272168 3.2831547 4290559164
-0.31865752 0.4383412 2.3287067 4286874756
-0.69142234 -0.38599181 -1.5338433 4285295724
